# .PCD v0.7 - Point Cloud Data file format
VERSION 0.7
FIELDS x y z rgba
SIZE 4 4 4 4
TYPE F F F U
COUNT 1 1 1 1
WIDTH 1426
HEIGHT 1
VIEWPOINT 0 0 0 1 0 0 0
POINTS 1426
DATA ascii
1.51075 0.550392 5.81666 2633272
-1.29798 0.610338 5.88033 10658211
-1.07785 0.556468 5.35158 8163227
-1.03525 0.559993 5.38328 6580336
-0.934158 0.553973 5.31466 10201784
-0.690539 0.532357 5.0904 8292242
-0.474659 0.514355 4.97134 9674674
-0.25721 0.499137 4.82636 7897746
0.984416 0.543943 5.51655 3948618
1.14663 0.531814 5.40194 5527905
1.36715 0.541658 5.57751 5462883
1.90935 0.632322 6.67324 6578778
1.95547 0.610534 6.34405 7301474
-1.37784 0.652596 6.31812 7953754
-1.18562 0.606947 5.79173 9479862
-0.961533 0.563837 5.34844 6713473
-0.74367 0.532794 5.08135 10069172
-0.676367 0.530536 5.05882 7567491
-0.665072 0.535683 5.05677 6713215
-0.620506 0.529471 5.03046 9016734
-0.606543 0.525414 4.99598 13556193
-0.585627 0.523534 5.01179 10990011
-0.569257 0.531205 5.00398 9542053
-0.409035 0.517731 4.9303 11716058
-0.00162407 0.498624 4.73272 2896458
0.145711 0.49531 4.79156 5136243
0.418833 0.508206 4.92954 5395547
0.529008 0.5139 5.02131 6186352
2.00697 0.614578 6.37763 8157043
2.00697 0.614578 6.37763 8157043
-1.26529 0.611999 5.82615 6779005
-1.21468 0.612363 5.82987 12705774
-1.06553 0.578064 5.50006 9148836
-1.03013 0.579436 5.46336 4936801
-1.00423 0.585229 5.47901 8818334
-0.836471 0.553309 5.20764 11648456
-0.110648 0.50748 4.81752 3555926
0.0344099 0.501715 4.77573 3819356
1.13142 0.541689 5.37671 3356222
1.68077 0.587377 5.97004 8162447
1.74533 0.587653 6.08542 10004386
-1.30146 0.623413 5.84561 13287870
-1.15643 0.594016 5.57453 5267570
-1.11121 0.584365 5.42985 4083046
-0.928692 0.568836 5.3153 7042950
-0.880087 0.558239 5.25648 10858170
-0.860531 0.561056 5.23129 8423316
-0.452829 0.532007 4.95537 9806002
-0.430615 0.528996 4.93317 5660015
-0.394741 0.526516 4.89813 3490392
0.271949 0.514862 4.86897 3686223
0.448879 0.524321 4.97492 7896710
0.691914 0.526381 5.11081 5922663
1.65342 0.607433 5.97685 5795454
1.65069 0.590836 5.95201 2498339
-1.2927 0.630726 5.88426 9804192
-1.23034 0.638014 5.9189 4151664
-1.04182 0.56863 5.21797 12506597
-0.909566 0.573887 5.28754 12371666
-0.750614 0.561801 5.12777 11714246
-0.601718 0.542666 4.99373 9608360
-0.532438 0.535819 4.96651 5989749
0.0552478 0.500915 4.64013 2172732
1.9527 0.634174 6.35754 11381414
1.97993 0.629017 6.34357 9344410
-1.26447 0.636618 5.852 9744841
-0.975731 0.600933 5.41626 9214119
-0.91572 0.559033 5.06369 9608621
-0.827256 0.571256 5.20577 8688029
-0.508192 0.54246 4.98361 9609393
-0.38204 0.538752 4.90466 6320773
0.330164 0.517409 4.79484 3355456
0.568664 0.532689 5.03633 8159878
1.37579 0.566511 5.49059 7436417
1.66614 0.612957 5.93508 5334388
-1.12655 0.617711 5.55698 7572127
-0.716145 0.558743 5.05762 9740201
-0.648233 0.549129 5.01285 10398391
-0.568232 0.549835 4.9727 5529193
0.233373 0.529947 4.8361 4610672
1.47513 0.593043 5.73884 8425371
1.74636 0.627409 6.09359 6710883
1.94696 0.648107 6.35002 6050893
1.95975 0.625051 6.34059 7434348
2.00443 0.650997 6.41009 10726315
-1.27981 0.6547 5.84968 5268090
-1.18987 0.636004 5.71246 10731988
-1.12655 0.617711 5.55698 7572127
-0.919645 0.59144 5.28281 6712189
0.657055 0.539177 4.98502 3882053
-1.1595 0.637387 5.63655 10204359
-1.0834 0.622774 5.51844 4411491
-0.948922 0.55134 4.84129 8359840
-0.968756 0.59595 5.27453 6382454
-0.903407 0.599335 5.28157 5660014
-0.856039 0.589814 5.2286 8753309
-0.808576 0.582404 5.14075 7370636
-0.659847 0.57064 5.05441 7635595
-0.428134 0.528338 4.62803 7832983
0.171354 0.539521 4.87802 3755363
0.184423 0.525308 4.69436 2042436
0.500438 0.539827 4.99451 5068387
1.65861 0.626949 5.94516 4145222
1.98418 0.666877 6.4016 4602934
-1.29858 0.659973 5.86483 11979738
-1.2518 0.663587 5.81482 5992325
-0.953334 0.596744 5.32924 8227224
-0.835583 0.593456 5.19478 12305873
-0.750287 0.578037 5.12133 12240078
-0.566009 0.567859 4.98932 10067877
-0.329779 0.561138 4.94699 3293012
-0.240042 0.55121 4.82748 14609131
-0.190364 0.550315 4.85549 15201272
1.83979 0.66157 6.27489 5393739
2.0883 0.686653 6.58179 9005398
-1.34012 0.683956 5.94178 13029580
-1.07129 0.633546 5.51132 10464445
-1.01196 0.629453 5.47849 7305096
-0.53347 0.550358 4.76263 7895688
1.88975 0.676893 6.36796 10396066
-1.2246 0.672009 5.80727 7111575
-1.13185 0.612083 5.25383 7571866
-1.13156 0.645569 5.58709 10598862
-1.10624 0.641982 5.5386 10464955
-1.04286 0.634679 5.47498 8950175
-0.924091 0.612875 5.29149 11843783
-0.621893 0.581064 5.01655 6781062
-0.417804 0.527385 4.4794 10464190
0.238175 0.554785 4.79187 3690086
0.325917 0.561785 4.91983 3948623
1.1213 0.596872 5.37871 5133406
1.78241 0.663874 6.14207 7303279
-1.28156 0.685176 5.87348 1648448
-1.1448 0.650967 5.54906 2239553
-1.01487 0.641366 5.45864 10595773
-0.956359 0.605356 5.13008 7764104
-0.890342 0.619484 5.26663 10201788
-0.689214 0.596441 5.07268 9082273
-0.506985 0.580529 4.95066 8621984
1.99112 0.687156 6.35519 11123122
-1.31594 0.689043 5.89215 11321547
-1.15773 0.657712 5.55617 13031141
-1.09862 0.652174 5.51703 9479092
-1.08378 0.656043 5.52303 3227213
-0.942073 0.613743 5.15297 9740980
-0.843104 0.615775 5.19786 11910603
-0.819008 0.614799 5.19689 11583690
0.193252 0.556663 4.73698 3689568
1.12944 0.606028 5.35082 2697521
1.38832 0.62329 5.5629 3356220
-1.3048 0.694927 5.88598 4149349
-1.22655 0.694337 5.80137 7967400
-1.24006 0.712401 6.034 7702428
-1.0245 0.65409 5.46905 10595771
-0.959213 0.619571 5.15557 10660535
-0.792553 0.61255 5.14565 9476779
-0.560451 0.598218 4.98029 7436418
-0.455337 0.564676 4.67522 12437464
0.493711 0.580688 4.98833 3949908
1.51976 0.657707 5.82424 6053987
1.95472 0.700633 6.35511 10069667
-1.34146 0.70749 5.89862 6251631
-1.23751 0.66605 5.52942 9614539
-1.09868 0.654098 5.39426 12113388
-1.08166 0.663393 5.48801 2438468
-0.847237 0.628181 5.19305 11450569
-0.581315 0.607305 4.95443 6581364
-0.517 0.567617 4.66099 6383993
-0.417404 0.593758 4.90857 5531774
1.41934 0.651729 5.68863 5001301
2.02464 0.717262 6.41315 4407611
-1.30543 0.714786 5.88778 9088454
-1.18037 0.679612 5.58994 9678532
-1.10485 0.65254 5.35183 1975090
-0.979159 0.65322 5.37205 10859712
-0.735448 0.616709 5.01906 11517384
-0.688864 0.61309 5.02179 8754333
-0.487876 0.581863 4.71644 4016733
-0.362245 0.600939 4.9082 14742522
-0.26207 0.599517 4.83146 9674667
-0.218965 0.594927 4.82252 13426410
-0.185398 0.587064 4.8262 12371407
0.596274 0.599873 5.05675 7633281
-1.32255 0.718393 5.85677 3952484
-1.10578 0.679429 5.54683 3227220
-0.950011 0.657699 5.33847 6185585
-0.806825 0.631343 5.14616 10596287
0.255704 0.595118 4.88464 2372167
0.423741 0.596075 4.93833 3884887
0.658615 0.607739 5.07892 5725028
1.44206 0.65753 5.66083 6449520
1.84013 0.708897 6.20875 4209204
1.9786 0.726071 6.34515 10794418
-1.38426 0.739613 6.00676 6246218
-1.33835 0.722861 5.86391 11715535
-1.03698 0.677556 5.46911 9477802
-0.989629 0.669871 5.41227 11713739
-0.913517 0.670909 5.32968 8686752
-0.292531 0.604438 4.8422 13030366
-0.146299 0.603947 4.82852 12963287
0.0653844 0.593457 4.83174 5129284
0.24256 0.600889 4.88724 3952227
0.343009 0.585419 4.75475 3357256
2.75603 0.944931 8.45341 8620435
-1.29524 0.7273 5.8402 2834262
-1.20337 0.712739 5.7137 11190488
-1.17365 0.709086 5.69551 6846600
-1.09943 0.692407 5.52375 7705769
-0.472358 0.595841 4.71811 5857914
-0.337188 0.620616 4.99714 13031392
1.74213 0.71291 6.08908 8096403
1.79823 0.726134 6.17571 9216947
1.89568 0.738 6.34463 11188402
-1.32306 0.735833 5.85907 2043971
-1.28847 0.739459 5.89453 5138042
-1.21447 0.716004 5.70645 6717077
-1.06383 0.687236 5.44222 7636885
-0.982251 0.68299 5.39721 6384249
-0.893143 0.66505 5.29662 9346223
-0.819087 0.650618 5.16165 6383991
-0.796923 0.650542 5.14612 8950947
-0.634303 0.616863 4.86298 9147297
-0.569679 0.632075 5.00044 4937319
-0.236074 0.621446 4.89511 11715024
1.44038 0.677445 5.65551 7833230
1.91428 0.739076 6.33684 3880500
1.93473 0.746105 6.36159 10991539
2.01748 0.767447 6.55543 9545645
-1.12369 0.703781 5.54418 1582905
-1.11296 0.711304 5.56972 3686741
-0.934833 0.673398 5.26116 9871795
-0.38335 0.631194 4.89424 9807029
-0.272526 0.618991 4.81398 12242139
1.75678 0.723926 6.0733 8232631
1.82298 0.742787 6.20796 8822186
2.77878 0.969179 8.41718 5782576
-1.327 0.751994 5.87331 10337748
-1.08732 0.70405 5.50052 4873327
-1.01362 0.706966 5.4623 7700625
-0.99127 0.692545 5.39619 11187139
-0.86402 0.668988 5.18524 7831957
-0.837095 0.668359 5.19885 7436168
-0.600048 0.642673 4.98705 5200492
-0.405749 0.641997 4.92581 13032167
-0.382432 0.620342 4.87202 5266285
-0.307981 0.622569 4.8646 8031644
-0.113449 0.630716 4.80236 11516872
1.49951 0.701627 5.75604 5987680
-1.3615 0.751061 5.92813 3818071
-1.27598 0.746802 5.84139 9548225
-1.20672 0.734519 5.69186 1781837
-1.04835 0.702608 5.43839 11188939
-0.918605 0.686482 5.28492 7239303
-0.776894 0.641432 4.90498 12042446
-0.643222 0.647085 4.96073 9279910
-0.229539 0.630466 4.85048 11780819
-0.168099 0.625772 4.81901 9084333
-0.0200368 0.619424 4.79392 4010806
0.152596 0.603809 4.67254 4931651
0.414254 0.633531 4.9594 5857651
-0.835786 0.684119 5.19526 9345446
-0.537295 0.654901 4.98902 7633790
-0.197052 0.644599 4.86639 9149106
-0.148855 0.630799 4.7998 8556703
0.0445922 0.603169 4.58294 3616305
1.04746 0.671274 5.30471 4935510
1.42655 0.703462 5.63709 8160905
1.75975 0.746789 6.08337 9938866
-1.3098 0.764215 5.82824 5597823
-1.28304 0.76257 5.81969 5663876
-1.15693 0.731861 5.57502 1712687
-1.0828 0.725299 5.45689 9481922
-0.884572 0.675994 5.10175 9740979
-0.861118 0.693054 5.21795 10988991
-0.736546 0.672464 5.03892 10793412
-0.683849 0.648949 4.8344 10135732
-0.374177 0.646261 4.88616 11583955
-0.325407 0.638786 4.834 8623011
2.78595 0.999899 8.41899 9606544
-1.14141 0.736973 5.53927 11325407
-1.08914 0.70609 5.29141 12443637
-1.0828 0.725299 5.45689 9481922
-0.943503 0.718793 5.38041 9673900
-0.81936 0.689453 5.15802 12043474
-0.230951 0.649843 4.86333 9937591
-0.204239 0.657119 4.78664 5267063
-0.197052 0.644599 4.86639 9149106
0.970436 0.669534 5.19644 4671056
2.80818 1.00801 8.40084 6839120
-1.26305 0.780244 5.88374 6849175
-1.26305 0.780244 5.88374 6849175
-0.861118 0.693054 5.21795 10988991
-0.785259 0.687747 5.12023 8489886
-0.621827 0.680363 4.98535 9083304
-0.251807 0.645629 4.79461 4675435
0.34238 0.652945 4.95993 3952999
1.2395 0.712574 5.5354 5462109
1.79725 0.773774 6.12549 3815735
2.63951 1.01109 8.34212 3748137
2.79043 1.01922 8.4066 4735037
-1.38482 0.801813 5.98968 10796749
-1.35638 0.79019 5.89655 12178144
-1.12375 0.748139 5.56683 1255745
-1.0722 0.741468 5.47494 3161162
-1.05236 0.737411 5.44844 5662590
-0.840413 0.705588 5.15773 11845067
-0.73417 0.691999 5.11396 9807287
-0.608277 0.675487 4.95311 6715271
-0.514691 0.672449 4.96936 8687253
-0.37559 0.635743 4.6499 11056585
0.247376 0.658642 4.88765 5326665
-1.28986 0.788641 5.79642 4414321
-1.01412 0.727522 5.33603 10661312
-0.687922 0.69169 5.0393 10859196
-0.570103 0.678485 4.93333 11121597
-0.204239 0.657119 4.78664 5267063
0.358091 0.66876 4.93581 2963274
1.33009 0.725082 5.54644 3882049
-1.25877 0.791457 5.77097 10665679
-1.10927 0.709004 5.11891 9808052
-1.09116 0.737075 5.35127 11060700
-1.09276 0.756012 5.50673 8557995
-0.943885 0.707867 5.13494 10001577
-0.801408 0.710971 5.14092 8423571
-0.772817 0.701424 5.09088 8424857
-0.757625 0.69988 5.0809 11516362
-0.738212 0.702043 5.0807 8030874
-0.647131 0.689139 4.99525 10463668
-0.522643 0.686047 4.95913 11911110
-0.47626 0.662425 4.7316 11975886
-0.0794505 0.658316 4.78246 3751499
0.023535 0.655087 4.81905 5656145
0.0761364 0.656796 4.76728 5656663
-1.33971 0.807687 5.87302 3750990
-1.29907 0.80432 5.81866 5203320
-0.658993 0.696002 5.00717 10924990
-0.382873 0.679714 4.86355 9939649
0.165556 0.667939 4.85031 5854299
1.52853 0.759077 5.77352 8160137
-1.30832 0.809224 5.84801 4676462
-1.18695 0.781993 5.60925 5663355
-1.13008 0.773055 5.56679 529446
-0.913998 0.735838 5.26047 11121859
-0.834847 0.724353 5.1671 7897233
-0.720031 0.710308 5.08685 10661823
-0.598783 0.661785 4.67485 7898256
-0.149449 0.672339 4.82836 8095903
-0.0717643 0.660802 4.80176 4343120
0.0581081 0.669073 4.81222 3880764
1.11515 0.726808 5.40682 5003362
1.47168 0.758903 5.7144 6119782
3.87304 1.11737 8.93859 8750210
3.96652 1.12075 9.02704 6444104
-1.34803 0.820124 5.85725 8891335
-1.16127 0.792792 5.64252 4606298
-1.00174 0.757941 5.38433 5066848
-0.785511 0.689298 4.83928 11515074
-0.632248 0.710461 5.01438 10793148
-0.104044 0.672375 4.78197 3491418
0.34741 0.687192 4.97642 3553856
-1.25877 0.791457 5.77097 10665679
-1.23452 0.808613 5.73329 4679297
-1.21161 0.807171 5.71907 9875646
-1.18575 0.798886 5.64412 11123140
-1.12798 0.785155 5.56299 10468041
-0.988818 0.770215 5.42146 9214123
-0.845751 0.698791 4.85733 7566215
-0.85274 0.737211 5.21124 10397878
-0.431923 0.697036 4.91168 11583953
-0.391394 0.698281 4.90153 5794689
-0.362395 0.657237 4.55932 3491684
-0.215019 0.690617 4.81429 3360867
-1.36222 0.832794 5.86282 3885927
-1.34015 0.836139 5.87773 2438991
-1.21831 0.784662 5.53386 8690607
-1.08402 0.78516 5.48623 3886691
-1.06761 0.780705 5.46863 8164781
-1.04394 0.779183 5.46946 10595264
-0.979138 0.725482 5.02374 6974846
-0.780903 0.735253 5.1261 8620185
-0.691389 0.717351 4.94175 11055295
0.043195 0.681734 4.79706 3489874
1.80659 0.827464 6.14175 4670022
2.91791 1.1112 8.52652 6768180
3.80958 1.16922 9.09274 9471350
3.95744 1.15653 9.01513 8025964
-1.2236 0.812156 5.65439 4743028
-1.16261 0.807141 5.59234 1713719
-1.13641 0.797967 5.56674 67351
-0.931693 0.720761 4.91142 6449019
-0.941934 0.757428 5.32022 8489626
-0.914122 0.755052 5.25889 7634318
-0.648713 0.731453 5.04651 9543593
-0.4838 0.712224 4.91712 10201528
-0.353335 0.707739 4.88095 3624040
0.0591922 0.689934 4.80161 4874104
1.45713 0.788839 5.66526 8752787
-1.36783 0.850209 5.89793 6322077
-1.22103 0.808681 5.52802 10335941
-1.20234 0.837364 5.78128 5069677
-1.04169 0.780514 5.4028 5858681
-0.758102 0.697595 4.72493 13357270
-0.627475 0.737542 5.08027 11056318
-0.082306 0.701902 4.83859 5136763
0.250418 0.677762 4.64581 5332338
0.33219 0.695535 4.86877 3751752
0.407369 0.720899 5.03733 3947334
1.21511 0.748556 5.37779 5527905
1.67368 0.859572 6.29012 6644579
3.85576 1.19739 9.1971 9671306
4.08442 1.16429 9.01459 10520174
-2.03979 1.25203 9.06657 8419181
-1.30314 0.848634 5.8042 10864086
-1.08226 0.803014 5.48754 8692153
-0.892704 0.758142 5.19183 9871795
-0.76756 0.748104 5.08723 6448500
-0.753151 0.748869 5.09113 10794183
-0.407764 0.718577 4.89798 7175569
-0.234605 0.706152 4.81685 5532549
0.266438 0.724129 4.95391 4872045
1.42686 0.785635 5.60146 4142386
3.71109 1.23053 9.3703 10389104
3.73886 1.21676 9.35703 10719091
-1.20234 0.837364 5.78128 5069677
-1.12362 0.813215 5.53249 9483722
-0.913164 0.793432 5.27506 10004408
-0.799431 0.758082 5.1195 8159634
-0.781481 0.755868 5.0947 13688041
1.80261 0.861468 6.18241 3684154
3.04502 1.18868 8.93211 5453359
3.8132 1.22107 9.25856 10132372
3.84368 1.21146 9.18516 6248013
-1.37062 0.87726 5.955 4607850
-1.28486 0.855727 5.78478 7770013
-1.09005 0.812921 5.45947 3227732
-0.961668 0.792 5.32601 6779780
-0.727364 0.754465 5.03064 7897487
-0.501136 0.694628 4.60282 12897757
-0.446374 0.730216 4.90107 7965601
-0.348287 0.72818 4.88341 5992329
0.0247315 0.698261 4.68994 2766675
0.234631 0.715661 4.84648 5201523
1.59999 0.834488 5.91734 6190212
2.63766 1.12261 8.36956 4733489
3.85216 1.20792 9.13582 8817798
3.94108 1.20647 9.01981 9539725
-2.42796 1.51963 10.8498 11449520
-1.21928 0.849515 5.68818 5400701
-1.16777 0.83638 5.55449 10270921
-1.16001 0.840968 5.67585 6057084
-1.0141 0.810209 5.41748 8951978
-0.838165 0.749182 4.94587 8356755
-0.796325 0.767742 5.10695 12174288
-0.751751 0.748292 4.94942 7960708
-0.475756 0.738101 4.913 13688556
-0.429106 0.733519 4.87962 6780813
-0.332387 0.697495 4.603 3489876
-0.256391 0.731181 4.88014 3162709
0.109258 0.706726 4.70324 4806515
0.340648 0.71084 4.77157 4736078
1.5286 0.826644 5.78755 3094592
3.772 1.1934 8.85179 6379347
-2.32208 1.48209 10.4685 7172984
-1.33102 0.873498 5.8458 1978434
-1.3045 0.89153 5.97947 9480115
-1.06208 0.821808 5.46803 8428460
-1.03569 0.82274 5.44311 5266284
-0.734728 0.766066 5.05719 10530237
-0.705312 0.763784 5.03579 11450308
-0.54601 0.754077 4.99071 9280166
3.68441 1.24869 9.33368 9403243
3.79074 1.22269 9.03264 8223094
3.6738 1.17615 8.69439 5656398
-2.29163 1.45644 10.1513 8224642
-1.1841 0.863931 5.70931 3095369
-1.12572 0.842611 5.57164 2304051
-1.08636 0.837773 5.49887 2567997
-0.904266 0.800272 5.26754 10136253
-0.766877 0.775404 5.07941 12896977
-0.493557 0.73355 4.78827 10268609
-0.310779 0.744494 4.88655 3226186
0.535534 0.752143 5.0241 6251119
0.993638 0.78722 5.31028 3552056
1.51596 0.834773 5.77942 10202805
1.80096 0.884898 6.14793 2893351
3.7185 1.2532 9.09304 7960691
8.61202 15.0598 108.613 9872811
-1.31008 0.885428 5.82336 9285056
-1.22479 0.869357 5.68278 4479082
-0.990096 0.823021 5.37486 9739431
-0.985095 0.832534 5.43537 8752284
-0.716128 0.772384 5.03176 8424859
-0.698774 0.771729 5.00701 11186879
-0.660696 0.779057 5.08305 9872046
-0.43909 0.749355 4.85864 6451335
-0.195214 0.744118 4.86875 5268605
0.119065 0.7391 4.84863 3490908
1.46977 0.833544 5.68053 3290680
1.61108 0.864277 5.88723 7701645
1.76348 0.883175 6.09164 6517120
4.01933 1.22248 8.86001 6379081
4.14169 1.2352 9.06675 7234392
-2.44401 1.5248 10.5546 5260860
-1.25707 0.873176 5.7439 9153986
-1.10812 0.849195 5.50802 9546428
-0.813989 0.790903 5.14075 9344675
-0.53124 0.764369 4.91754 9214119
1.05762 0.800926 5.3307 3355450
1.29812 0.826394 5.54454 5462111
1.57445 0.8627 5.83721 3881791
3.767 1.2938 9.31353 8158327
3.75687 1.24899 9.00228 6051408
-1.0814 0.856431 5.5289 7638690
-1.05577 0.844538 5.46621 4740453
-1.02736 0.843746 5.41987 11123655
-0.986615 0.830955 5.34711 6515576
-0.925354 0.819637 5.2807 9870769
-0.788481 0.79497 5.09733 10857919
-0.765004 0.795105 5.09165 7568015
-0.730113 0.788299 5.03935 4870239
-0.566797 0.775942 4.95856 8425885
-0.498275 0.770853 4.94481 9544119
-0.00353082 0.751246 4.82709 2240587
0.188211 0.768698 5.0067 5003636
0.78065 0.78822 5.20671 3948873
1.30991 0.826877 5.53453 5001043
1.43151 0.835722 5.60973 9083044
1.54684 0.859796 5.78662 3028032
1.74246 0.895267 6.07396 5197655
2.72005 1.18933 8.38555 5200213
3.59921 1.28064 9.15167 6114892
3.81566 1.29388 9.24443 8684673
3.80864 1.26335 9.03396 6774617
3.84943 1.2766 9.13667 7300705
4.04231 1.25995 9.00948 10066064
-1.41209 0.925993 5.97158 2896963
-1.36157 0.91571 5.87323 3160395
-1.20724 0.884853 5.69886 5071219
-1.12865 0.861179 5.52437 3821412
-0.884657 0.821648 5.24565 9738920
-0.745491 0.790685 5.05064 10662598
-0.644155 0.745336 4.68274 9016233
-0.595783 0.785348 4.998 11977677
-0.537099 0.781283 4.95999 6186871
0.138036 0.721608 4.58434 2833749
1.09638 0.813468 5.34833 3291714
3.7829 1.30746 9.29195 6642776
3.72048 1.25505 8.89974 9935255
3.72442 1.2273 8.67618 7830392
-1.26318 0.902947 5.76249 1979464
-1.19109 0.892522 5.69949 2570314
-1.09726 0.865672 5.48893 2832974
-1.07332 0.863378 5.45708 7374751
-0.851347 0.799369 5.02663 7568005
-0.833556 0.813712 5.15149 11318723
1.5343 0.872802 5.7882 8429228
3.73771 1.24987 8.77577 9278352
-2.44508 1.58575 10.6729 9808816
-1.28341 0.911984 5.74505 7506329
-1.1949 0.859834 5.40256 7177881
-1.20284 0.900251 5.69558 12045530
-0.910095 0.801896 5.01083 6185590
-0.775432 0.808346 5.06509 10989248
-0.746058 0.803222 5.05417 5857398
-0.72026 0.801374 5.03953 5791080
-0.554385 0.788296 4.91322 10201012
-0.322691 0.750502 4.68024 2634308
1.69223 0.911327 6.01875 2892586
3.55852 1.33535 9.23673 7432289
-2.45293 1.55643 10.3478 6248533
-2.38979 1.53095 10.2358 4868943
-2.40744 1.60168 10.7017 7040114
4.59528 13.2089 100.044 3223346
-1.14782 0.886403 5.57127 10272206
-1.01008 0.862892 5.40317 10858685
-0.909616 0.838272 5.23073 9213092
-0.890213 0.838728 5.23366 7369085
-0.87048 0.829841 5.17503 7369854
-0.835676 0.823208 5.13632 7173762
-0.705542 0.809679 5.03074 10924991
-0.600364 0.797737 4.96344 8096920
-0.46467 0.784884 4.89115 4675183
-0.44721 0.743101 4.56255 4279908
-0.365207 0.784607 4.87537 3819356
0.160416 0.772226 4.84297 3423829
1.43949 0.867251 5.64764 3816771
3.71619 1.30598 9.00981 6907234
3.74671 1.29418 8.99661 6116431
4.1733 1.29649 9.01136 12228469
-1.18933 0.899853 5.60007 7703968
-1.15019 0.871643 5.41633 5926016
-1.06387 0.882512 5.50369 11190738
-0.917952 0.816233 5.03303 5658729
-0.670118 0.810395 4.99143 6384771
-0.32259 0.788917 4.87737 5793145
-0.228608 0.790562 4.89076 4937841
0.788868 0.825249 5.25317 3488066
-1.37124 0.948887 5.90947 2764086
-1.35208 0.947986 5.89665 13100782
-0.867697 0.801496 4.88093 8817820
-0.81328 0.835468 5.13742 7041662
-0.641063 0.810236 4.96691 11122118
-0.62389 0.812169 4.98685 6121587
-0.542379 0.80681 4.945 10201010
1.47697 0.886198 5.69898 5727092
3.74109 1.34881 9.21368 6709088
3.80275 1.32234 8.98061 5459274
-0.0329182 0.366471 2.00365 6582399
-2.46743 1.64728 10.7913 8886942
-1.20955 0.918908 5.64815 4940151
-0.937692 0.844875 5.25544 7107972
-0.790279 0.835905 5.09553 7502478
-0.606081 0.814926 4.96303 11450822
-0.58655 0.809161 4.95155 11780302
-0.438877 0.803657 4.89254 7306899
0.00129707 0.799286 4.88538 5135986
0.0658325 0.764797 4.65733 3226706
1.09028 0.859434 5.40518 3224635
1.49454 0.888428 5.69387 3420726
3.71689 1.36962 9.30854 8617853
-2.45394 1.58995 10.3532 6184799
-2.16692 1.49365 9.61705 4804176
-1.38511 0.967499 5.94111 12707831
-1.26927 0.93018 5.69015 9155280
-1.1388 0.912168 5.53773 2175558
-1.10132 0.891604 5.47678 9876680
-1.05215 0.896839 5.4745 8953001
-0.841197 0.810632 4.88325 8883617
-0.750615 0.846346 5.09339 9082023
-0.706591 0.824406 5.00401 7174792
-0.696663 0.827401 5.01443 11122629
-0.422399 0.810203 4.90674 7241619
1.04002 0.845032 5.29515 5330526
1.45412 0.89044 5.61757 9477801
1.53413 0.904251 5.72064 5793651
1.55594 0.917486 5.80742 4673111
4.15255 1.33496 9.03103 7038305
4.21034 1.34894 9.07456 7430738
-2.42796 1.55968 10.0307 10988455
-1.31251 0.953131 5.83893 6583426
-1.25485 0.940589 5.71649 1717322
-1.23241 0.942065 5.68673 4611695
-0.990291 0.848502 5.08755 12176089
-0.856898 0.858819 5.17355 10068916
-0.826783 0.859952 5.15259 10923446
-0.750615 0.846346 5.09339 9082023
0.273337 0.816256 4.98095 4212566
0.434703 0.810567 4.96545 5592926
1.59107 0.921579 5.83238 7107962
2.94126 1.28784 8.54317 10329495
4.00591 1.32529 8.88727 9802125
-2.39185 1.63503 10.4675 3356731
-2.32896 1.62253 10.412 4077368
-1.40835 0.984055 5.967 11388117
-1.38512 0.986444 5.98056 12640240
-1.17705 0.911228 5.4828 11781327
-1.12118 0.920727 5.53404 9942726
-0.785526 0.854265 5.10092 10529982
-0.618543 0.826429 4.92778 9936556
-0.488584 0.824903 4.92791 11581889
-0.263305 0.817681 4.89888 2831178
-0.0121987 0.809894 4.87658 3424597
2.68609 1.27347 8.35633 4603446
2.97297 1.29962 8.56718 5787468
3.56742 1.38874 9.24506 7233885
3.66915 1.4139 9.40538 8092027
3.65949 1.36793 9.07915 4865082
3.85682 1.32653 8.81383 8027514
4.09356 1.34277 8.84338 8157041
-2.17557 1.38335 8.64716 5853781
-2.46092 1.64928 10.4975 5332065
-2.41853 1.64994 10.4969 3749687
-2.37607 1.65055 10.4961 8622998
-1.22588 0.941588 5.6604 6651536
-1.16823 0.920689 5.50444 3291722
-1.08242 0.915095 5.4645 4610411
-0.908936 0.871252 5.22217 8489370
-0.770864 0.812464 4.77193 7369605
-0.654439 0.842767 4.99473 6450565
2.73241 1.29212 8.4079 6909548
3.59846 1.38557 9.14369 5654598
3.56484 1.35761 8.94835 7104613
3.96687 1.34764 8.97352 7565162
-2.40276 1.66553 10.5257 9082520
-2.32898 1.65303 10.4699 2694172
-1.34365 1.00958 6.04234 10334403
-1.16677 0.934527 5.58392 4805219
-0.880535 0.817891 4.76621 7698314
-0.691244 0.849297 5.01273 6318710
-0.630558 0.842188 4.96819 10990787
-0.620056 0.84441 4.97224 11845839
-0.60135 0.854016 5.03664 8358552
-0.383837 0.830771 4.89718 9147554
0.260963 0.822351 4.88361 5200748
0.924154 0.879552 5.36954 5065300
3.42714 1.38999 9.08856 10057041
-2.28782 1.60889 10.0956 7896192
-1.37616 1.01607 6.0448 11389907
-1.24459 0.940011 5.5398 2700871
-1.27113 0.985491 5.82727 4808566
-1.06598 0.92061 5.44847 3884884
-0.966678 0.905008 5.33752 9804713
-0.91231 0.885997 5.20148 6316403
-0.871762 0.893454 5.24029 7964054
-0.829797 0.881284 5.15936 10199211
-0.814467 0.876262 5.12386 10068396
-0.376387 0.841417 4.90828 10861774
0.441248 0.838386 4.97369 3750723
0.706237 0.859465 5.1654 6317166
1.50553 0.947565 5.73832 3026995
3.15635 1.33786 8.61124 5656133
3.39872 1.41835 9.19382 10918278
3.71979 1.38217 8.99328 5987420
3.94747 1.3537 8.8189 5591369
-2.60665 1.70729 10.6424 13681838
-2.47732 1.63371 10.1764 4404277
-1.43404 1.03101 6.08421 7441053
-1.41622 1.03277 6.09383 2241099
-1.16946 0.949135 5.52813 5400443
-0.941291 0.902947 5.28039 9675443
-0.854849 0.890565 5.1804 7632776
-0.742673 0.867764 5.05749 10529981
-0.411606 0.841464 4.8978 10269125
-0.223164 0.800353 4.62208 4409435
-0.032607 0.832353 4.86706 4871784
0.211951 0.800969 4.66723 2830917
1.07103 0.893541 5.34762 3422272
1.77028 1.01013 6.22163 2696231
2.02732 1.06412 6.55923 8092540
2.93863 1.33098 8.52066 6709334
3.55688 1.44984 9.31526 9211530
4.1128 1.3821 8.93604 6115918
4.5856 1.45886 9.50447 7428678
4.6477 1.46832 9.58616 12493692
-2.36627 1.69878 10.558 6315359
-1.3426 0.996105 5.84103 11126997
-1.26571 0.969212 5.74311 4478826
-1.21053 0.961048 5.59318 3490132
-1.16946 0.949135 5.52813 5400443
-1.15399 0.952097 5.553 1582135
-1.02603 0.892202 5.1528 2176066
-1.04026 0.930688 5.42098 5070189
-0.934047 0.83469 4.77558 8291727
-0.855194 0.815852 4.63984 7041925
-0.597736 0.858319 4.94407 5924469
0.122982 0.8395 4.88325 4938348
0.999957 0.883594 5.28033 5261647
2.76391 1.32326 8.39247 6515048
3.63056 1.41431 9.00484 8158588
3.94204 1.37251 8.70651 8947070
4.45896 1.46563 9.38436 8416593
2.09565 0.811321 4.92738 8616816
2.25197 0.76557 4.53226 10389868
-1.0934 0.944016 5.45006 5532543
-0.846538 0.902424 5.18543 6647424
0.544424 0.856234 5.03763 5528424
3.34207 1.39931 8.87885 8291454
3.55688 1.44984 9.31526 9211530
3.6398 1.44826 9.23698 5391423
3.84821 1.36968 8.68477 9543330
4.22289 1.42119 9.02275 9729888
-2.49498 1.67915 10.2647 7502718
-2.49551 1.72845 10.6215 7306886
-2.37702 1.72976 10.6166 5657168
-1.29589 1.00572 5.76258 4282991
-1.19819 0.979942 5.63364 12570849
-0.781171 0.891832 5.07483 10792127
-0.684127 0.872831 5.02927 6844282
-0.21292 0.850175 4.87196 3159106
0.754076 0.895771 5.24347 5330269
3.07842 1.42346 8.94594 4010028
2.9541 1.36479 8.54686 8947069
3.07078 1.38114 8.56949 9013891
3.11381 1.36232 8.54716 9938083
2.54512 0.992629 5.9722 7959141
4.22289 1.42119 9.02275 9729888
4.68131 1.49506 9.55192 11508086
4.48884 1.41864 9.12128 9137485
-2.44895 1.6953 10.294 9545645
-2.39693 1.69612 10.2934 3358270
-1.28308 1.02034 5.86568 3426655
-0.961651 0.935684 5.34029 5528170
-0.780356 0.811331 4.51336 7568527
-0.654213 0.867348 4.98335 8489889
2.68374 1.34339 8.31491 9014661
3.30108 1.43083 8.97198 4932939
3.58503 1.49345 9.39032 8947329
3.94925 1.39613 8.83893 5526358
-2.58246 1.78665 10.79 2499368
-2.52361 1.83779 11.1481 8885144
-1.22603 0.982696 5.60381 7440795
-1.19784 0.991212 5.56584 9873851
-1.12214 0.914812 5.15948 4808056
-1.156 0.976854 5.52524 4348020
-1.14452 0.973913 5.52914 10073035
-1.11768 0.96653 5.49501 7309212
-1.04496 0.95832 5.42333 13753825
-0.837925 0.87243 4.86846 5921132
-0.6166 0.897376 4.96167 9740979
-0.605475 0.886576 4.98714 11910857
-0.540099 0.880791 4.94063 4411236
3.05476 1.39243 8.59894 5787723
3.12352 1.38619 8.56221 4736322
3.6281 1.48644 9.29788 4602938
3.96874 1.4152 8.76889 6972513
4.09015 1.44114 8.93781 6906462
3.98044 1.38651 8.60578 5392452
3.98278 1.37434 8.55057 8025196
2.44745 0.786408 4.54061 7823955
-2.26762 1.46497 8.59066 11641739
-2.17616 1.43057 8.36985 4803925
-2.54429 1.73835 10.4064 7503497
-1.38229 1.04002 5.89876 12047846
-1.27752 0.988891 5.599 1714491
-1.0154 0.955042 5.3781 13620961
-0.842815 0.928488 5.20127 6251384
-0.711077 0.898597 5.01909 10266802
-0.128533 0.874776 4.91306 4869206
0.235725 0.854784 4.86347 5069422
1.89221 1.06353 6.2977 4538946
2.89558 1.38009 8.48167 8817545
3.19755 1.39808 8.60263 5457989
3.61414 1.50192 9.33822 7038567
4.6716 1.50892 9.43496 10521460
4.68594 1.50757 9.42328 7363913
4.72655 1.47356 9.05977 7105121
4.92386 1.50752 9.41697 8611930
-2.21936 1.45702 8.5333 2631466
-2.3027 1.68047 9.97739 3682608
-1.2385 0.973286 5.43485 10269894
-0.892129 0.938696 5.24748 8818852
-0.79965 0.928082 5.16392 6581632
-0.746264 0.912582 5.05274 11122632
-0.634303 0.893626 4.96142 11714255
-0.498906 0.886345 4.91991 11781334
-0.396211 0.8758 4.87022 11978711
-0.048987 0.872605 4.88947 3026492
0.0138517 0.83504 4.63022 3423567
1.85488 1.09977 6.49639 2695974
3.54726 1.45265 8.91902 6380630
3.54726 1.45265 8.91902 6380630
3.5522 1.44411 8.8578 10462111
4.1883 1.44111 8.91657 6900538
1.72457 0.628699 3.41278 7301986
4.73616 1.51313 9.38368 9730406
4.83817 1.49522 9.28943 11771517
4.48523 1.35349 8.3064 8349783
-2.15965 1.45847 8.45578 4146247
-2.38891 1.69399 10.0058 2300969
-2.42454 1.82187 10.8158 9542297
-1.3065 1.02444 5.70863 5794687
-0.623779 0.900288 4.96901 7305868
-0.602218 0.904161 4.9451 10924478
-0.587651 0.903159 5.00979 8752796
-0.44462 0.81189 4.41034 11385034
0.585446 0.879653 4.91761 6118505
0.684513 0.914619 5.16106 6185836
3.01308 1.408 8.52036 6446420
3.27898 1.42755 8.67893 9871005
4.4843 1.35319 8.27091 12033663
-2.53681 1.71994 10.0856 9147538
-2.1768 1.46165 8.43533 5790560
-1.39101 1.06805 5.95257 2635084
-1.29148 1.02498 5.69024 4678012
-1.13837 0.997397 5.50903 10203338
-1.10129 0.98388 5.46657 3951199
-0.947058 0.957149 5.28653 7041665
-0.874715 0.920961 5.05871 8752286
-0.835368 0.937079 5.15273 9673896
-0.80747 0.932514 5.12195 5593965
-0.719098 0.915492 5.02332 6713727
-0.693826 0.909863 5.01348 8291987
-0.602218 0.904161 4.9451 10924478
-0.469802 0.900626 4.94768 9280429
-0.350001 0.885916 4.86606 10991040
-0.0576858 0.879216 4.86001 4868691
0.276163 0.8833 4.88382 4740718
0.57058 0.912167 5.07561 5066328
0.670122 0.921933 5.13873 6383215
0.748166 0.924421 5.21148 5856873
1.01593 0.926954 5.2482 4869200
1.31624 0.969956 5.51902 3290688
3.50665 1.46167 8.84528 9672855
4.15772 1.45847 8.87275 9076334
4.215 1.47177 8.9431 13083001
4.90575 1.55146 9.44278 7763319
4.72655 1.47356 9.05977 7105121
4.47404 1.36887 8.31937 6117452
-2.24423 1.46623 8.42322 7832707
-1.26567 1.03679 5.72158 12045529
-0.775767 0.92785 5.07186 10067889
-0.499934 0.903207 4.92029 9477810
1.62813 1.03121 5.86679 7305607
2.74664 1.40161 8.34838 6709342
3.01298 1.42975 8.55797 7238257
3.2003 1.44024 8.6218 5260868
3.7864 1.45325 8.70122 7438733
4.1344 1.47448 8.88324 5456695
4.63422 1.56798 9.54991 7759955
4.20869 1.42898 8.61344 6906702
4.76966 1.56823 9.55389 7170141
4.46082 1.39824 8.43258 9595991
-2.3089 1.79158 10.4387 7567992
-1.18744 1.00397 5.48759 10861258
-1.13385 0.99757 5.49364 9940678
-1.06994 0.96952 5.27747 12046819
-1.06851 0.986108 5.3828 12968434
-1.00923 0.987048 5.39985 12902638
-0.846963 0.908738 4.906 8817819
-0.745666 0.926094 5.00526 8884129
-0.65104 0.917313 4.96656 6383482
-0.619664 0.857469 4.58992 9804719
0.520237 0.901772 4.95929 6381669
3.35517 1.49143 8.88862 8751492
3.38884 1.49559 8.90083 7566194
3.52896 1.53358 9.18469 5723477
3.74726 1.46402 8.76549 5264214
4.58253 1.59005 9.6123 11901565
4.44504 1.40332 8.43698 10061683
-2.29928 1.74261 10.0678 6713465
-2.29272 1.80726 10.4659 7501683
-1.34451 1.04737 5.71697 8496058
-1.02035 0.988279 5.36796 7176598
-0.956363 0.945869 5.09816 4739943
-0.943814 0.979468 5.30385 5396584
-0.784602 0.938023 5.09059 7569039
-0.739584 0.917101 4.94835 9476008
-0.717615 0.932434 5.02583 9872048
-0.480261 0.908141 4.90097 11320010
0.178795 0.895061 4.86246 4214114
0.4813 0.918439 5.01291 4013642
0.895223 0.956615 5.31521 3355193
1.08438 0.958518 5.32056 3619138
1.89736 1.10248 6.2947 4999241
3.18533 1.45367 8.59713 7698813
3.50655 1.50249 8.89944 5065285
4.08234 1.48747 8.77971 8420470
4.47274 1.40578 8.38648 10720122
4.51128 1.40433 8.34069 8812654
-2.3409 1.54571 8.7532 5991019
-2.2211 1.49731 8.43489 4078657
-2.44678 1.83553 10.5548 1709850
-2.35143 1.82254 10.4985 2103842
-1.17499 0.985004 5.29307 7635343
-0.884484 0.967637 5.18552 8424604
-0.807497 0.953565 5.12009 8817820
-0.690074 0.935522 5.00704 6778233
-0.523863 0.870425 4.61079 9674164
-0.366376 0.896502 4.82984 11057090
-0.269432 0.90662 4.85608 15001581
2.71951 1.43012 8.39817 5985361
3.2055 1.46147 8.59176 5131079
3.43708 1.50534 8.85909 6052177
-2.4209 1.57032 8.8137 6514532
-2.33101 1.6941 9.67725 3817545
-2.2922 1.83854 10.5223 9475996
-2.19641 1.77414 10.1194 7697266
-1.32736 1.06801 5.76349 5335684
-1.23293 1.03581 5.55587 7306639
-0.884484 0.967637 5.18552 8424604
-0.737154 0.941339 5.00568 9279657
-0.706768 0.938179 4.98889 9738409
-0.662635 0.86363 4.502 8290960
-0.544545 0.87612 4.61555 5924471
0.486739 0.930144 5.01365 4211277
0.93086 0.963169 5.27763 3550771
1.40887 1.0154 5.60498 3026738
3.17494 1.47501 8.60849 5197128
-2.45791 1.86718 10.6131 6979722
-1.38225 1.08229 5.7978 11847896
-1.35566 1.08932 5.82673 3097945
-1.32134 1.08241 5.82094 9744837
-1.17598 1.0342 5.51164 4873848
-1.14651 1.03362 5.53054 7376550
-0.951303 0.993249 5.28541 7567243
-0.933367 0.999503 5.30892 5660271
-0.897594 0.981995 5.20971 8359327
-0.543918 0.940804 4.95108 10925513
3.22471 1.4801 8.58217 7963005
3.31295 1.48818 8.64927 7434352
3.47948 1.52186 8.86958 4013365
3.52778 1.48175 8.76755 6842468
3.64004 1.50261 8.78639 4866624
3.64001 1.48433 8.70415 7500400
4.58575 1.62231 9.56027 10061166
4.73972 1.59584 9.39501 6841954
4.89529 1.60246 9.44365 6776937
-2.83265 1.90799 10.7643 5723992
-2.81086 1.90823 10.7634 4934475
-2.44425 1.81591 10.2368 9412006
-2.31322 1.86997 10.5806 8757152
-1.25836 1.06948 5.70919 6980503
-1.22096 1.04529 5.55549 11125714
-1.18822 1.04154 5.49291 10401737
-1.12157 1.035 5.52671 11387601
-1.04621 1.01598 5.38132 11915494
-1.04024 1.01624 5.42256 6318201
-0.992185 1.01564 5.37353 11847640
-0.845186 0.978147 5.15763 9344158
-0.770059 0.95899 5.0606 5198689
-0.626898 0.950795 4.97879 11188421
-0.508518 0.932791 4.91794 10464703
-0.268003 0.916232 4.74035 12505054
-0.256936 0.860407 4.46882 14607597
-0.243419 0.911346 4.82419 6512227
1.02289 0.992098 5.31964 7371396
2.96784 1.47327 8.50857 9343625
3.20829 1.48614 8.58792 8553341
4.23656 1.53711 8.97517 10914668
4.36636 1.57175 9.18667 10520686
4.77241 1.63132 9.56268 6318179
4.41977 1.49925 8.7156 8156012
4.83983 1.61905 9.49388 9996664
4.48357 1.45103 8.44346 11641215
4.49486 1.44676 8.41313 6248531
-2.60189 1.6873 9.25735 11447199
-2.29912 1.54093 8.47274 3093816
-2.29912 1.54093 8.47274 3093816
-2.40525 1.88557 10.6173 7372419
-1.25668 1.05076 5.55497 3030096
-1.15654 1.02123 5.3659 4741752
-1.15006 1.0417 5.49655 5140624
-0.892006 0.994081 5.23053 5594734
-0.796692 0.976642 5.16408 7699336
-0.737491 0.962171 5.03608 10990016
-0.559685 0.956912 4.95872 9873855
0.604061 0.936094 4.96943 4276812
4.14845 1.52886 8.86527 6180675
4.68204 1.64706 9.61156 8156000
-2.29975 1.83478 10.2373 5723993
-1.08745 1.03434 5.39994 4871011
-1.0485 1.02382 5.36238 8957899
-0.750792 0.965561 5.02208 6117734
-0.414867 0.938556 4.85197 14937847
-0.26159 0.885621 4.52881 10531012
-0.235648 0.936888 4.86692 14802923
-0.217037 0.868914 4.46898 5065295
1.43976 1.04908 5.66545 5066063
2.97575 1.51427 8.54132 7037787
3.18974 1.50899 8.6013 4668989
4.33646 1.59446 9.16781 6512717
4.66253 1.67438 9.67609 6444354
4.37386 1.45962 8.32891 5787205
4.5053 1.49331 8.5397 7562846
-1.37987 1.13588 5.9911 6649481
-0.915538 1.01862 5.286 5659756
-0.915538 1.01862 5.286 5659756
-0.877198 1.00339 5.19834 7240071
-0.795207 0.99356 5.1455 8818331
-0.79033 0.992208 5.15124 9410467
-0.62866 0.960115 4.96619 12503254
-0.505029 0.94829 4.90364 13819629
-0.474788 0.953683 4.88538 11977683
-0.353517 0.93897 4.86822 14608112
3.33091 1.51498 8.60303 7433829
3.74902 1.56544 8.99523 6117717
-2.72843 1.7974 9.72557 10066065
-2.47097 1.64492 8.89107 6713970
-2.50628 1.96113 10.8095 7504264
-1.18566 1.06731 5.5405 2764867
-1.15904 1.06079 5.51404 11790074
-1.09197 1.06254 5.50977 3029066
-0.997041 1.04427 5.34669 7438740
-0.966101 1.03278 5.34754 5330794
-0.680655 0.975263 5.02829 10792373
-0.615285 0.965085 4.95186 9082019
-0.205239 0.960351 4.92515 8552582
1.29347 1.02534 5.46105 3552829
2.7015 1.48278 8.29669 7103327
3.0996 1.52734 8.60078 4669762
4.77948 1.65131 9.37795 8944745
-3.33335 2.25804 12.4091 12102812
-2.22052 1.56888 8.42793 8160904
-1.38709 1.13032 5.88059 12704999
-1.3642 1.13178 5.87835 3815228
-1.26102 1.08716 5.62357 10996961
-1.23096 1.08667 5.60276 10072514
-0.835309 1.01221 5.18435 8357263
-0.731098 0.980813 5.01193 5726578
-0.269295 0.937682 4.78903 10922936
1.01559 1.00396 5.26512 4739677
2.86063 1.51537 8.47442 7434865
2.87552 1.51376 8.44601 6186345
3.29299 1.53363 8.58522 6907486
3.9631 1.56891 8.81666 7301483
3.71362 1.42463 7.96338 10261643
4.51404 1.50159 8.46912 10654324
4.52511 1.4971 8.43832 5328459
-2.29905 1.58159 8.46999 9084577
-2.25617 1.58902 8.45578 5332070
-2.38267 1.91048 10.4039 7767180
-2.34181 1.89707 10.3531 2170658
-2.29941 1.89721 10.3495 2167311
-1.11006 1.05952 5.44851 9614279
-0.830385 0.963315 4.86372 5659240
-0.79763 1.00519 5.12593 8883867
-0.749153 0.991316 5.03837 9871539
-0.727168 0.994025 5.02745 7174280
-0.704816 0.991031 5.00068 10727358
-0.676342 0.982985 4.99105 7963537
-0.6317 0.976233 4.94609 7174019
-0.24117 0.955252 4.83739 9937583
1.61556 1.10688 5.87305 2893096
3.15095 1.55108 8.62238 4538171
3.43593 1.5677 8.71427 8752010
4.57144 1.69615 9.57666 11049601
-2.33298 1.58245 8.41309 11190979
-2.37021 1.62793 8.65633 4081998
-2.14905 1.59417 8.41041 9741998
-1.23096 1.08667 5.60276 10072514
-1.14281 1.06938 5.51117 10208473
-1.02854 1.05316 5.3307 12770026
-0.986503 1.05709 5.37023 9149877
-0.838842 1.01725 5.15598 8884120
-0.658404 0.981121 4.97323 11977158
-0.463856 0.910724 4.54431 14081775
-0.342306 0.968653 4.86912 14871026
0.68076 0.997796 5.14819 4014153
1.07016 1.0167 5.26925 6053733
1.17335 1.0029 5.19904 3682874
3.82952 1.58555 8.80846 6316647
4.86648 1.7142 9.64375 7170400
4.70778 1.63453 9.20926 7498844
4.90712 1.68187 9.45118 7105123
4.26638 1.46573 8.11325 8223347
-2.4577 1.94198 10.4668 3683902
-2.29904 1.92872 10.4054 7306103
-1.32878 1.14947 5.84603 9547457
-1.13162 1.08997 5.51972 6321286
-0.754914 1.01037 5.07196 6910338
-0.6317 0.976233 4.94609 7174019
-0.581603 0.980369 4.92603 8556968
0.731974 1.01347 5.18054 5791339
0.760314 1.01455 5.24255 3752013
3.0184 1.63713 9.01675 3549482
3.97118 1.58067 8.74512 5856089
3.81966 1.49916 8.26172 8093832
4.57731 1.70922 9.5119 12100748
-2.40268 1.87459 10.0441 4935259
-1.35178 1.15549 5.85759 5531770
-1.27081 1.13369 5.72962 5205637
-1.07555 1.0782 5.45591 7173000
-1.01979 1.06643 5.35682 11651034
-0.941976 1.06441 5.38719 4278360
-0.626625 0.995835 4.94614 7766679
-0.369774 0.970289 4.83872 12174029
0.327381 0.968916 4.94978 4015189
0.368984 0.973755 4.90477 5726319
0.938329 1.02383 5.26306 2894641
3.59575 1.60864 8.84405 8885913
3.96504 1.54042 8.4516 8156277
4.3027 1.64546 9.13622 9664353
4.11041 1.58265 8.67572 13216125
4.33532 1.64264 9.07201 10914152
-2.88887 1.99953 10.65 5529183
-2.41706 1.64509 8.60838 8490641
-2.35836 1.62192 8.48437 2891812
-2.32636 1.62256 8.49746 10467005
-2.14905 1.59417 8.41041 9741998
-2.42576 1.97407 10.5207 7569545
-1.27936 1.13244 5.70505 8034992
-1.21103 1.11624 5.56963 6850460
-0.739667 0.996433 4.97056 7107974
-0.6683 0.995715 4.94329 9806259
-0.171285 0.973917 4.82641 12571106
-0.122825 0.960146 4.78971 10591651
0.467537 0.987961 4.96308 6118763
0.667358 1.01989 5.15263 3816262
1.59708 1.12303 5.81206 13424603
4.72302 1.68834 9.27637 7695955
4.49889 1.58428 8.67352 5586741
4.5221 1.57477 8.61057 6049353
4.55864 1.54599 8.45238 5259829
-2.54566 1.67756 8.6856 10725537
-2.28661 1.61908 8.43535 9610671
-2.17165 1.60845 8.37649 2894640
-1.24936 1.13496 5.64375 3228765
-1.15078 1.0697 5.29814 10268348
-1.10385 1.09322 5.49163 9084592
-1.05262 1.07949 5.36681 9215922
-0.805372 1.03285 5.1259 7370881
-0.615346 1.00218 4.96798 10794441
-0.499039 0.98715 4.87555 12438746
-0.282229 0.970196 4.74757 13227745
0.56784 1.01844 5.08051 4936031
0.623575 1.01549 5.10799 6316910
3.72612 1.49089 8.04912 8159367
4.72134 1.71496 9.42406 7497560
-2.52824 1.69428 8.79012 7108473
-2.30593 1.63283 8.4491 2172209
-2.25128 1.62591 8.40693 4211786
-2.23686 1.64138 8.49105 3095880
-2.38856 1.92166 10.1287 3754325
-1.2521 1.11939 5.53889 3359062
-1.21103 1.11624 5.56963 6850460
-1.04187 1.08473 5.37385 6911887
-0.896768 1.06834 5.28313 6317171
-0.842211 1.05078 5.16449 9279390
0.527205 1.01808 5.09301 4078663
1.02012 1.0439 5.2802 5133918
1.95291 1.23366 6.39255 7371651
3.33512 1.66288 8.96119 8159617
3.47584 1.61762 8.69642 9804951
4.00703 1.5756 8.46592 11573636
4.25214 1.65399 8.92895 10783853
4.5384 1.56725 8.50067 10061935
-1.3851 1.17125 5.79118 10863314
-1.32458 1.15751 5.70699 9283772
-1.31119 1.16652 5.79301 8693184
-1.03063 1.05125 5.13093 3754336
-0.896768 1.06834 5.28313 6317171
-0.761537 1.03056 5.04726 10266551
-0.486367 0.998735 4.88298 10728387
0.214874 0.967853 4.74576 5459021
0.537912 1.02334 5.07131 5856617
1.52217 1.12792 5.73703 11582917
3.27612 1.62992 8.6595 4340279
3.46082 1.62865 8.72089 5523266
3.82033 1.63585 8.69538 6977151
4.00707 1.61516 8.73444 5921630
3.98291 1.58408 8.49182 5983304
4.7173 1.71986 9.28624 5194036
4.43313 1.55876 8.3436 5917247
-2.55184 1.6826 8.55266 9279378
-2.78525 1.99155 10.3491 4079427
-2.12532 1.62564 8.31696 3884884
-2.08689 1.63612 8.3804 4147283
-1.20494 1.1361 5.56408 9943241
-1.19457 1.13996 5.57998 3359827
-1.15483 1.13043 5.55001 8691634
-1.08638 1.10118 5.46358 7766677
-1.00342 1.09555 5.40113 3686232
-0.88923 1.07151 5.22204 5987430
-0.842211 1.05078 5.16449 9279390
-0.626435 1.01684 4.93846 12635868
0.450517 1.01594 4.98182 3355969
-3.06749 2.09621 10.8613 7700093
-2.52317 1.6957 8.56864 8425098
-2.4395 1.66604 8.47221 5857633
-2.4395 1.66604 8.47221 5857633
-2.27852 1.65568 8.43578 7110022
-2.20571 1.64106 8.33496 6781059
-2.37203 1.98256 10.2572 2564390
-1.37348 1.19204 5.83382 2305095
-1.32411 1.18159 5.79433 3098211
-1.01259 1.09496 5.3232 5924733
-0.926883 1.10198 5.31896 8817047
-0.890647 1.07968 5.25941 6447726
-0.712394 1.03723 5.01372 10332340
-0.68068 1.0311 4.97589 8226712
-0.495066 0.999635 4.79895 12502740
-0.221608 0.997066 4.81083 11188166
-0.0129409 0.995416 4.81615 6116951
3.47649 1.66589 8.83153 6974566
3.96897 1.61366 8.5611 7567997
3.88193 1.56403 8.26546 7563621
-2.91982 2.09962 10.8338 5924453
-2.2551 1.66723 8.44681 2303533
-2.29509 1.98493 10.2326 9216424
-1.26926 1.15225 5.60143 2833238
-1.26926 1.15225 5.60143 2833238
-1.24063 1.15796 5.64749 1978952
-1.18855 1.15751 5.58496 2897733
-1.07371 1.11441 5.38891 7636633
-0.63839 1.03218 4.95316 7634578
-0.249695 1.00005 4.82576 9741490
1.54684 1.14166 5.73123 3222832
3.4896 1.65633 8.71436 5261641
3.55296 1.66257 8.74526 8487813
4.02586 1.59479 8.41073 6444611
4.35321 1.64305 8.6725 7167312
-3.375 2.30441 11.8632 9738647
-3.31442 2.2892 11.8079 9542293
-2.52398 1.71368 8.65193 7567738
-2.28684 1.67762 8.43236 3158070
-1.13681 1.1344 5.47797 2372681
-1.07371 1.11441 5.38891 7636633
-0.792324 1.06359 5.08513 8686228
-0.305221 1.01191 4.83415 10266809
-0.225632 0.969766 4.60158 12437197
1.08845 1.0884 5.33413 3355965
3.37361 1.63025 8.51453 5131590
3.82694 1.63685 8.53176 5198166
4.58319 1.62481 8.53631 8946282
-2.47345 1.70539 8.53966 4803921
-2.44832 1.70112 8.58817 3488061
-2.32127 1.68597 8.45588 8426141
-2.24193 1.68274 8.41871 4081742
-2.19317 1.67267 8.37125 8755366
-2.41129 2.01681 10.3005 7635080
-1.22836 1.16886 5.60145 8100784
-1.08302 1.17974 5.6657 3950180
-0.739127 1.05598 5.02374 7766162
-0.603611 1.04093 4.91801 8359071
-0.509578 1.0402 4.92754 9280427
0.438886 1.04912 5.04726 4737107
1.00628 1.07435 5.24115 4016981
1.52942 1.15302 5.70107 9150636
1.57762 1.16903 5.78197 7969197
3.15368 1.63084 8.47672 6182740
3.86687 1.69246 8.84488 7239550
3.92971 1.66957 8.73174 5790046
4.7228 1.80216 9.48038 8352350
-2.47461 1.73247 8.63573 3620416
-2.33267 1.6943 8.40492 2435631
-0.585686 1.04358 4.92585 11122889
1.37664 1.1384 5.56454 8227989
3.45957 1.66225 8.5952 7435631
3.95363 1.65745 8.62908 7564134
3.86361 1.61931 8.38203 7234655
3.94768 1.63209 8.4482 10326921
4.53407 1.80298 9.44478 11970181
-6.72572 3.30477 17.0012 10062203
-3.1049 2.18175 11.018 11186868
-2.14583 1.69289 8.37008 5069417
-2.44366 2.04902 10.3604 3420727
-2.35086 2.08918 10.4793 3753290
-1.3542 1.21618 5.80924 9879775
-1.28961 1.18352 5.65227 3491421
-1.27983 1.20744 5.68398 8495805
-1.21065 1.19024 5.66483 5726314
-1.13422 1.14288 5.42326 2766144
-1.11867 1.15941 5.51223 4544618
-1.11867 1.15941 5.51223 4544618
-0.900677 1.11201 5.26426 5330274
-0.813807 1.08964 5.14322 7239557
-0.722131 1.00759 4.68535 7699084
-0.674182 1.05776 4.97461 8094613
-0.603611 1.04093 4.91801 8359071
-0.54984 1.03648 4.8707 6385021
-0.421371 0.975865 4.52363 11385290
-0.139919 1.02885 4.86023 12109781
0.393332 1.04286 4.9463 4013385
0.993713 1.09513 5.2673 11386056
1.07297 1.08875 5.23427 5592925
3.90691 1.6049 8.26369 5913133
4.79811 1.80889 9.40995 11049084
-2.36162 1.70396 8.39824 2370356
-2.25723 1.7077 8.4082 2237739
-2.54042 2.00396 10.0423 8426660
-1.23537 1.19338 5.64893 4415606
-0.491329 1.03857 4.8574 9017514
-0.410011 1.02934 4.80354 13622760
-0.0516385 1.02321 4.79478 14543349
0.976237 1.11503 5.25044 10397102
1.3772 1.15303 5.57697 3158071
3.04793 1.67352 8.53367 7829365
3.44507 1.6913 8.65943 6712683
3.91673 1.71114 8.76975 8489362
3.87386 1.63521 8.36667 10986652
4.64628 1.85061 9.55844 6119262
4.68333 1.79858 9.32088 9206377
4.56518 1.68589 8.68022 11511175
-3.12099 2.13573 10.6554 11320503
-2.40978 1.72458 8.48929 9611440
-2.35443 1.72342 8.45099 8030347
-2.17769 1.70346 8.42399 9217203
-1.3057 1.15247 5.40628 2768984
-1.15771 1.16858 5.47904 7900569
-0.881533 1.11882 5.23439 5133670
-0.511238 1.04685 4.87974 11122115
-0.474774 1.04355 4.84534 12438748
-0.439943 1.03746 4.80909 9544372
1.3948 1.16048 5.5744 7834529
1.40576 1.15805 5.57088 2239027
3.16027 1.65423 8.42323 5525835
3.46319 1.69147 8.6921 5264210
3.75747 1.81752 9.28242 6447455
3.84305 1.69837 8.68431 5329239
4.4474 1.66706 8.497 6576192
4.48325 1.63664 8.33981 9669490
-4.26176 2.49501 12.4978 9336932
-2.6864 2.04879 10.1538 6843253
-2.16475 1.71986 8.40304 4477790
-1.27471 1.20818 5.66622 7639983
-1.15596 1.18759 5.53806 6120553
-1.05778 1.09446 5.05479 4408399
-0.948976 1.09577 5.0661 12901618
-0.952894 1.1338 5.30885 8426408
-0.931707 1.14269 5.28236 4804964
-0.898171 1.0918 5.055 7635089
-0.701108 1.07914 5.00413 10926022
-0.642302 1.06483 4.92931 8360098
-0.520352 1.0499 4.8604 12175833
-0.464992 1.0532 4.86285 9083567
-0.250743 1.0174 4.67623 12832473
-0.221674 1.01723 4.67551 13819880
-0.0317825 1.04396 4.81044 13095905
0.40641 1.0875 5.10385 5263192
1.37365 1.16503 5.54518 10333369
3.02855 1.70094 8.58918 8091245
3.38238 1.68748 8.52514 4277570
3.93824 1.71077 8.65289 7238771
4.82036 1.83736 9.39605 9799025
4.44446 1.68142 8.52723 7955794
4.44938 1.65301 8.41252 7430742
-2.63534 1.7757 8.64161 10003360
-2.29147 1.73184 8.43052 2763056
-2.43393 2.05221 10.1187 2368296
-1.23542 1.19858 5.58799 10468559
-1.19226 1.18417 5.52245 8493229
-1.14323 1.18108 5.49602 7108478
-0.893907 1.14991 5.34199 7831442
-0.784456 1.02582 4.68859 9870513
-0.619999 1.07419 4.93464 11321041
-0.364284 1.043 4.83057 12438230
-0.305562 1.04511 4.79355 12636123
1.19162 1.13091 5.35035 4011321
3.68468 1.58219 7.91754 7497824
-2.43089 1.75439 8.46785 7044227
-2.44483 1.7777 8.63886 6846078
-2.34594 1.74137 8.40293 3027519
-2.32854 1.7455 8.44633 7306630
-1.3408 1.1768 5.4423 2568264
-1.34969 1.25208 5.81586 1777972
-1.20555 1.21026 5.59541 7706284
-1.08988 1.16788 5.38029 9018536
-0.731457 1.04403 4.73755 9608624
-0.596113 1.08927 4.97358 10200508
1.39217 1.17474 5.55506 4872292
1.57012 1.2157 5.78121 8492968
4.18959 1.74704 8.7715 11903369
4.65799 1.88639 9.54208 6904913
4.7533 1.87485 9.46434 7957337
4.40928 1.71095 8.62095 8878950
4.34461 1.65451 8.27215 9536104
